126.94935655684235,-181.37578637712443,74.4262456725353
170.5660577513706,-93.25861163525357,43.28533940638323
114.87903488680345,-72.37946967974963,42.06630397402587
136.8636404564602,-150.91626153624082,34.26066381748572
143.2589725689786,-13.932369252643127,61.93853777826045
143.6918870633459,-90.19044299911006,109.50823641706702
124.18582250375017,-158.8308138989444,79.73849091638908
113.20804298522947,-124.23036516469939,53.826818792681166
161.8713822667183,-193.80907551736837,43.53731464412573
169.73033695658808,-101.76700890656383,66.96607634705164
123.52734596474768,-184.90084404806424,30.010245783744036
148.28102685448516,-106.28782118555154,47.88650995647159
93.3938031293837,-197.49767507268743,33.083853437783276
113.34719399901844,-230.24952381161825,43.42132384602456
161.1312315959262,-97.47868260323958,35.198834097378246
165.49555406270443,-148.35092152054278,53.32217520570802
166.92607008646164,-227.54204508781572,59.59091955967064
172.4163380481948,-165.64705629998485,28.82273143892045
127.76541313054534,-162.3718799077274,57.39357209939787
138.3342629826967,-195.97495452869833,45.913348678889676
123.36386483583637,-232.2548706226821,37.41145103991741
128.47283104390573,-157.87410674262134,20.441076453233077
122.4555948969821,-98.88524217044191,33.728789607774814
132.24388432822897,-103.02075054811122,27.250487753938554
163.64102552080539,-217.30035485207094,83.73596435343094
114.98194177639054,-157.35990022169733,77.8699632953989
145.19787512228712,-204.9185818335013,58.47003801766893
143.8766981375335,-168.04436352644808,27.915728615519345
178.65761187814604,-146.95191389767484,1.77512419900755
144.83915970828787,-145.26624267195015,50.29517090352515
132.46846018392665,-120.99109099528519,94.30074677090634
142.53082334390197,-67.25470833289558,24.257205520335035
138.9736580244019,-87.69973114294828,66.42401745233467
132.24958175405072,-227.10896112792705,45.87034647453405
130.6605854448095,-254.73057459434486,64.27786631645398
104.50451760299339,-114.3399070390236,56.362613285814774
138.20398093448782,-209.8084212398353,77.95905631059776
106.13346193067133,-180.6338687138014,79.42601059794094
114.46201699335596,-150.24250836959558,94.76524613684055
162.66239073236846,-90.30762600552069,46.06063050265815
130.46387483783124,-125.01721384665633,22.922552592075025
141.71874889587292,-161.7308236361405,66.63160461675626
127.57072212587235,-156.59791332063642,25.6424176022017
155.22008009704714,-86.20293217448041,68.4418907832468
148.53933114904507,-105.480611700612,38.716988337825796
129.08807102844142,-193.32557952257588,29.650299067838276
141.11820849813,-200.27586922790914,60.31516661849194
148.433934265973,-117.82197365288607,37.35394106848494
159.1962403743029,-86.06175864925345,22.55686491647908
118.42105565162088,-162.53816631154996,18.114108086537502
152.6609415383701,-107.20082805546468,6.998172590210139
182.331084753071,-224.43511717794536,69.28058926499229
125.50937631355994,-103.47892967557567,51.852090370040415
138.53765596681217,-180.99810046699778,51.73404292467686
124.20966022312255,35.15601000692482,41.8836541369843
173.47931396790173,-79.50582697427292,43.36841978159689
114.57227053787774,-129.50879236860754,87.13018695757266
124.0939630739304,-227.15495865268713,58.49335801711043
145.7747907355116,-159.9015178372192,43.82282463871621
138.5850124087461,-240.9244100016071,49.519803208735354
138.73619108735744,-123.17511870753225,39.4137296550654
130.65815458956115,-98.49733268193505,58.24546463533692
130.2100515875787,-204.46824217277447,41.27736987842999
146.4729920116258,-120.97688411952174,82.50791453757961
150.43455371737144,-133.90710768098114,47.85800401638089
136.01290337587437,-93.52851554273343,46.25010006110669
128.4150848973921,-196.37425802382424,62.775748282313785
138.5990354089283,-111.46476682450431,3.370869516348847
123.24208879512949,-164.1744766862174,77.08547663941155
143.02328980737448,-240.61157740678567,36.29943446755408
119.80522877074966,-199.02519521291362,56.74896154372261
124.55182691850189,-83.849310265669,36.863820314643576
161.7536083231962,-187.87544338632625,64.55768693840298
153.68957358047203,-155.2256241808714,102.23561838163336
144.7441355491663,-219.6385429807479,41.968286264100755
134.8338753089874,-102.32373733776666,11.546029033474468
142.876583870881,-227.55384865059523,44.08982200735885
145.80002138340367,-162.3560071168929,37.94808206131907
147.74579077266833,-304.33491568933994,65.64276246030488
123.35351573836309,-116.24127103304943,19.119221539512438
122.11587474863727,-195.7294697901871,86.77525277813021
146.993436376713,-229.45457900145567,41.06705208067164
130.22647779606515,-76.83630040837504,59.949051685257956
125.95735736824491,-64.37647092987902,32.22235586675326
145.29495840149045,-158.51493294152937,52.440921952551584
151.65430561533967,-94.9900530350925,63.719443109742116
107.5576895127453,-209.92266279762106,13.003601049231513
152.21342451278358,-269.88000787421737,50.22619764887123
115.11501842559723,-136.26666091755243,59.7296279348474
147.0334973824249,-172.24312959055797,81.13912956068596
135.06600164223167,-109.97083445427819,61.504482508443736
154.20344559795126,-180.59446935081564,67.68545625390537
116.40262069925932,-132.77098591551356,66.29016800373927
138.95340289953947,-131.74928822815693,11.993699877415473
151.4497539684223,-36.445629987720295,32.99965766460176
145.79848919082838,-61.42009817561289,52.98769468579963
90.33230281899002,-99.93406417318852,58.16055098055884
142.34881911669328,-146.96759731708855,44.56880185723152
131.41256635769366,-90.47302364650308,32.95300110308422
129.55380681440784,1.6732967021903562,37.62890483352255
147.25588151904267,-215.67608893689265,71.62221472179534
164.93925517713208,-207.65132253557658,68.01775147004946
130.63231436355747,-140.71741446526678,56.25126747776608
133.90127936104915,-214.17246691841078,69.22808446265194
118.12228156998587,-62.263031363412665,50.164313004307864
157.2597608853871,-216.31913695381076,64.48421490834184
137.71013567075212,-157.39127684110667,75.28289281160583
145.13848598664902,-144.93070642519524,49.19078012494166
130.63963357839026,-61.851145654605915,37.4413581142788
133.28735127609548,-104.63753081395,53.665369379845124
125.60878832781876,-201.0279736527738,37.96009910685941
150.04596220248098,-108.20170292879234,50.98854601874301
151.0956467304657,-156.3042555703552,75.23963933336802
161.1849074606277,-113.96685522041744,51.81489868946053
141.96105643935942,-175.41694962581823,63.80177791864311
166.97688937763988,-165.56705532387167,51.782007462736104
146.278700795044,-151.75279816632195,54.22011198861901
140.52663819320213,-258.4621141916482,39.76489924984751
141.9403948751958,-279.11600075667707,33.9699466667506
164.82686787174785,-88.97837854172327,29.947620664241995
146.83673930427483,-109.94559848122911,67.10296306609959
164.94914653841872,-248.50183756609698,40.8277201003572
165.74972240947776,-385.8035084608093,58.90386026740044
119.39612513699997,-111.32630438323987,35.4731737272923
140.65957796463573,-169.95982044667204,41.738670584882854
170.0981011135121,-123.5958314221015,8.150933822195569
166.62582190124851,-141.04321432847507,8.268102703831488
142.832633209749,-139.16944995027302,41.05552007917254
160.78629097617872,-171.87682840200708,67.79267203355457
134.386785128596,-67.52531862922145,30.23204954899491
133.2601113041206,-181.38250601793513,46.12061371114399
136.02410970691028,-106.31166085467555,65.69208517300648
118.52526412835454,-116.9076289279021,59.15212687571083
116.93062045903432,-192.41282501995747,33.769974933173394
155.50824221380924,-281.0959170580754,35.21874412151209
153.4977313381438,-213.38386661583306,38.940238938691834
138.17801357948352,-122.49096543533678,41.690083704744914
183.51251885230127,-243.8488507336807,44.013189158498115
112.35516319456761,-209.58324918665764,38.13348802334737
84.49656690199144,-52.02720945788218,55.648797795070486
103.85256223944464,-75.69650471570561,71.09157600065168
125.87885707128218,-184.0148192878061,46.79165476533083
130.70858093328488,-83.96357228976704,47.23504518790622
138.45930648518748,-180.8641518577129,102.34250340558866
125.89694022376288,-301.45432285990523,75.46721548032157
161.62997439230514,-37.59004516651146,74.41987698416875
149.28861861756454,-60.30446831571041,37.55357493579799
164.9595258048414,-276.88228723525503,59.73949758143632
169.29607362518414,-70.06250598246952,65.39480708945024
149.44048429606946,-45.11743071684842,58.07045655881069
139.97195689009737,-76.66921854186815,40.77572377703681
102.17581190829878,-202.02689997432458,20.30446343038075
158.1470221708588,-115.59994669975346,38.17755384588502
149.49405993318393,-121.83664354150369,55.26624132613488
124.63626843211489,-74.50703937692225,41.09051148043534
150.17275057909308,-225.1468653962885,70.7401430684223
154.80789182987434,-164.57465879249128,43.763056823541376
109.2886520198733,-161.90090336409096,38.86982008862044
164.06627574127657,-165.7620465258389,43.69696654107325
102.08425827138394,-174.24827338167245,19.979513374878955
119.39285608853152,-189.8330396416165,68.07581895243885
187.1069967634022,-95.40934383664103,77.28695916733005
149.70645406237188,-213.20401899623167,80.66759350720363
145.62850195674082,-315.18444359665443,36.44656109947385
138.1198313491881,-183.8301607472613,35.14702258163051
141.97105927861506,-131.296613794761,62.418033891064916
151.14542397486647,-203.17229345006155,51.833420305595844
100.80323799839641,-190.5142101373139,37.76853117868019
126.05968724311525,-239.40426866018439,39.113831886873704
139.41835923287647,-163.16006132165103,66.44741339820546
137.99956260643583,-227.23323177515334,79.22131387673421
115.32834331369253,-99.54696745415201,34.66427222618986
159.91052401719486,-137.26725512411522,22.222925980406405
161.1362263252014,-181.32840774958376,32.58167878841782
104.57414369028996,-192.3436129188752,80.4443753469215
164.07677944695396,-246.08844027231368,71.92337906577484
137.81187007905442,-9.90643892297416,48.509527813088376
133.40811881584676,-54.32891214826934,56.09825269775412
178.96095033038017,-73.14954442780333,29.316312926369047
162.65190613751668,-27.3940874643567,26.69609904425629
92.59307910029372,-153.01788146153896,34.39968851936588
111.34298891363592,-123.48658185197074,73.93966365389238
145.30726680998194,-149.7419757443571,63.88311383173054
132.83732484134242,-91.77857472799815,52.258751596315314
155.00115862041636,-78.58433064354469,67.16961688427294
140.9687745733,-187.20115316181835,24.73179969897525
119.77211880465336,-304.5361898201983,55.44136302902268
146.8127891159992,-185.93363220205023,39.02281343154697
166.31232012333254,-93.96390248052134,70.33595834787279
154.28193373109855,-244.4211139368524,38.10634676572716
157.35434559344515,36.814160860871254,33.64471124990232
196.16786045605892,-140.2320105834995,43.873912655365594
117.43205957955229,-156.63723784967104,47.344713452031456
138.73250612501784,-158.86742910344572,37.389458487141646
131.73949913365647,-190.31024010487104,51.449732669679626
153.52321134851545,12.309598364273342,42.045579959239845
144.12591491761364,-141.8641343177169,73.53348199834589
149.9310749435834,-178.05712109302047,84.25667387349294
140.97868694480772,-312.59141274055014,62.43608686139925
146.64029067940638,-119.77251582272079,47.5141717643948
153.99624809645832,-79.80448463820547,57.01136761487491
169.80881878765484,-226.5011011597183,61.06234539219392
115.27421302331085,-197.9049779773001,55.33001978297454
176.61884572041217,-82.88255653650445,47.31634171305104
118.54291128293436,-297.3895338757653,60.30925654979336
123.14223620031828,-39.96008533618651,63.065756413105646
116.56989152135989,-135.26831451240932,47.54058268586039
155.362594411451,-150.2428066588024,35.4856175788983
174.05360256751396,-113.58406621978529,66.96758967557847
147.78001757224183,-189.76868416404764,37.982149856955196
154.32527290369543,-212.08095891460778,36.82234236011044
103.4723189455747,-265.5569048564174,61.17371677425501
125.69697770649714,-211.62664548025936,66.19266934118406
159.7094980035941,-180.28298201402862,79.80730558481822
152.15788530984193,-213.92891958005106,57.833119348099174
118.57620304357174,-238.38530043153906,40.261984071387445
124.15703536572629,-175.5324248846087,53.876725413460036
152.15022594369202,-51.92835225269154,44.59547506367019
130.46895097109987,-208.55698304670528,29.517294046221814
126.52999173244326,-141.9313821008892,57.45221042814686
136.4178435065589,-200.58994240287052,24.168393837750184
124.58791098594816,-81.65613771262394,16.003138041974687
131.80460068012897,-11.045107606274314,6.745601410577812
157.84676495633164,-46.50865903576175,54.31531703414845
109.98203766846767,-230.25361502396908,92.92542110837893
158.93139977211922,-188.04838133113444,81.33107887164289
168.49909559626428,-60.25426094555711,36.86984344559414
150.45625459167093,-85.32026776279737,81.74314138810567
125.30535879658598,14.357266673032541,63.76934412739254
122.66825214056391,-200.4163083531761,63.162952441903876
131.40606669704567,-203.38269669736246,36.78853795534352
149.3703222584332,-131.4399739120297,61.51074618480598
151.47834916753726,-191.41453758273153,76.1943123138498
130.6222641432349,-100.3093754039642,34.9358728320829
155.7429299917877,-164.87875140736978,5.93030758705563
191.5012042364598,-173.69827172768495,59.10694894215066
154.56916732542624,-233.455313793907,53.74178657552379
155.04089698475255,-211.19945366597767,54.89118776088216
125.99034500639605,-225.67949236142402,11.162190805152377
147.72276261500411,-72.91706654780974,45.7573177244873
164.64561166452023,-45.85931018778507,14.347622763404445
145.4974484324184,-246.28138023658863,51.31012720357416
124.34672152692055,-54.201841162584316,68.18149006432233
145.45234506619562,-19.994658407406575,62.61301226313422
145.1135536574256,-117.90546718437474,51.22329544789861
150.1911702712254,-168.5453976893429,12.613280791378983
159.94532671327124,-153.01299001336406,39.327265278042375
145.8894031120899,-64.32524338326084,51.956790736680674
173.89600100948817,-165.39108829270842,58.326296537943385
144.0618549399379,-230.5784279679942,80.84286944181181
125.49910168843644,-220.05640573879026,39.66757978212209
163.01535373700221,-306.30345258532617,59.31374764220776
130.4404495627888,-250.98177097746327,66.4492732600744
140.22991381689883,-88.9919765293569,20.915642576880927
179.4951550774446,-198.04498041252498,19.70075793497539
125.86467012393176,-170.49303489285546,42.913404503567705
111.31966004316801,-183.54352534702622,62.85236970828475
137.44817317610827,-172.42311206455565,58.28312847300361
135.05845141976312,-12.580964198761507,58.570606567315096
132.66630029845575,-218.7333467563158,39.272396687109676
175.63965202939167,-37.9161908802683,50.263042853917725
119.08452454548629,-127.64760027638314,39.10380477561161
134.75809512316437,-133.0390706919621,59.33089157324747
149.15805262259434,-197.63922167908618,19.29386323081109
142.4826766407951,-64.54767883125172,77.29323311312689
116.53367027223547,-130.3249471602841,28.814747204594653
146.01235379960283,-201.17080485699069,56.98257407459674
146.0134129826638,-224.5924622692295,69.0971417056987
129.2427834991342,-241.083747518161,40.54768470076638
126.35240177260604,-225.68943290260245,44.40725905639011
132.74010479049684,-127.47110766159136,43.25933872094328
154.02919579654778,-154.54387219389884,39.585548090690224
124.09106781080848,-128.0756412338178,54.51378309818671
104.11836539911077,-167.53536353517998,86.11350489011059
121.57038602774034,-129.06726947361543,62.61700965397618
149.76811110863807,-175.49441172121365,28.721414780075122
138.32375097796768,-166.52936048912463,51.127973359417
141.36119058444348,-126.95801117924836,13.940040167178267
171.08443858584127,-195.25372585392773,36.32942839988222
149.75015628519586,-79.89839188677819,62.14900210871061
162.83603417374286,-216.04640494416344,68.07282357636059
140.13190675039667,-153.90951991301827,53.965684878426494
142.13670134232754,-112.9009544435973,40.6217960280262
154.93595056302433,-89.46217764680965,41.376351836061936
151.16612752173847,-100.50576440704043,45.97411723525063
118.12334091411225,-262.3933583672769,59.08698829560675
120.15124896283181,-224.7219281696937,72.4075256796495
142.83633484485932,-115.34908750806733,55.92013373227826
118.96962502375146,-113.97959117862635,34.35228963867044
119.2402472187395,-78.27519799023828,64.2773638354999
107.69215660927921,-256.1156739094574,30.440226443534097
145.5755851913964,-166.95774500269417,47.32605987265474
126.8168079691909,-189.688034198736,56.92911956998809
154.02542221948437,-124.32886949115858,35.54900685958583
163.0953441573625,-137.8399060604349,40.3551723402575
142.91822502041882,-191.73511285111837,30.43320448638825
135.82528136630552,-7.917937509907432,37.873707183084605
124.58283771118478,-112.87446809677397,29.91138366715855
149.7306513011969,-107.14686496467827,24.846198238150823
162.7414479080113,-161.6333158986586,51.439179888801654
129.22890713911048,-92.74015318103253,51.183880308050874
152.1428119445299,-201.2431145399041,97.18554796946061
143.19712153617064,-198.2019647968936,61.64348979292666
142.44529027466936,-155.90966089479298,35.60534374982467
130.7844310802927,-112.07312774605157,40.06465063147844
132.39289696734247,-129.2539782494336,38.79028023775295
119.0877518241143,-157.00327057146572,44.519964537327105
157.94544040079586,-141.16309266881575,59.501151612752466
137.1124873902633,-113.00836984061215,12.542567227387792
81.56060644002008,-106.98627199036588,72.17055043142868
131.66316266909604,-172.6075149452413,67.41545295659706
111.36617284495722,-334.0195072967714,71.23826425576274
140.41441137371285,-231.76897700506862,52.278007590972614
123.9302829648368,-139.0256244719245,42.4417764847729
144.04907857873667,-77.76233292046737,7.51211511316103
152.3458904738061,-35.7415580743823,43.90880116079823
120.81576064662949,-28.48890896778711,46.391318037078385
149.93739416389542,-108.27072215472762,56.62871011567919
157.40946547988653,-251.78052614907386,24.754574436824157
158.36768080727728,-298.8194043352469,76.80841218101111
141.09588947820285,-138.52780383419363,71.58931549543371
155.16526420475316,-84.21794909013705,17.834595313031073
117.9955038007451,-266.42904175008607,76.2553081514431
154.30088384984995,-63.204812253903256,28.798552068619987
138.910573184747,-33.39774542493744,51.612163177903994
91.36165018057449,-228.43910793993115,30.115928393391705
142.7762422604727,-197.0470753461298,61.95904174084138
159.04946923512944,-148.98715776632534,25.385542908230025
136.03179752198807,-62.104504244994345,45.91482960810387
124.4333942247186,-143.16644068452757,50.496936998467916
117.60171867228884,-45.762016162449,52.44090014350163
169.34541317498756,-109.31485298621963,35.19334456562022
160.7600379158573,-178.3564590536785,59.89769620063985
118.57782955555791,-193.07011730289253,61.77791418982889
125.7730413155925,-174.45132035159006,23.218376424705806
137.80838441595247,-128.89593613312292,62.42974998167671
134.93269661480946,-101.83906711554434,12.695234722483477
111.13052881164053,-207.92249883705986,58.78287657222681
146.73174474927225,-273.88737666683335,68.20078074726656
137.79552833274317,-136.898061360931,49.438512905140755
106.40319847298059,-178.8599236807868,47.44651704309943
139.55449752782746,-205.64540341358264,57.6313722296582
115.53518196835003,-141.2058171761616,92.39607476422059
161.80964902893132,-162.48584840470036,19.042097308046237
141.8703104573068,-131.81412086466258,11.674268693641956
133.95350416622114,-126.60460958329367,73.3547785738441
125.4316133956882,-291.83675760584424,78.85954460021259
178.6488609664187,-210.82236754484754,20.52753064637303
170.8844259133175,-57.27644859393784,26.43185403118455
146.00063946012426,-142.8847245684787,52.15032948377223
117.51709977985485,-173.50212761933042,47.918725622967074
121.10308284054382,13.610885744481863,33.14666179965704
150.64848713733994,-187.76783932557822,76.40793326914776
140.07717165126067,-57.87943718094593,52.815500247829064
112.63306953524321,-159.72273404318483,7.843022129617495
168.9928591212073,-28.77927968049721,59.399586066099005
128.15541264630048,-179.32051757260763,26.3042659751007
161.3276553963749,-119.97091432000687,36.97077597405584
124.81812698987201,-156.52405618995198,48.40163602490573
149.1820541615156,-40.65014488471054,31.66295785035376
127.57888941533488,-119.27113093974475,53.68860781526195
153.70293123289315,-66.70634200197729,64.78977975102886
138.43322817291372,-82.87431484120083,18.872982695465993
114.38612735318208,-164.12404782685803,80.47186474998688
135.6093365333431,-213.25774415266017,24.136157811983647
119.64501486989582,-92.0112021024051,17.84703401855844
144.3214722085495,-126.61235716081147,25.940573389079468
100.6956548065956,-119.17560683844054,45.06338296738167
123.10111328827341,-123.4446661246115,59.76803649029158
154.6440844054922,-152.84050115099194,71.9112659499731
128.24081592182466,-102.03827563405603,59.44843720663037
135.24168923277674,-308.1912144609348,23.48876204341604
144.57378965322505,-133.85006466314846,71.87070016610956
140.0862191292733,-147.22535192834823,61.82438677163553
146.02440676971923,-159.95302617896223,76.70029543657205
144.97221507160558,33.65065825345877,39.96904451460442
150.98033796250485,-201.91329866022997,31.780411750183376
114.56524312401852,-136.1903914461936,85.11442515636223
117.26290342247954,-97.38608191573033,35.30826821116215
150.35200078764444,-187.30921376406584,40.27572422666399
123.54829618748113,5.037057802024208,32.32870338454302
128.31150503003317,-173.5305149868968,40.178667418552706
114.88654183303399,-243.699232243167,40.9848095969991
156.80713567726477,-104.98939274032477,53.99324023891116
114.9027281669483,-129.3127277879616,1.7911543369409273
138.81036915913106,-189.24241178537255,33.99929795109654
121.69449615784757,-113.44976541020901,47.207581835694384
169.84651200536166,-57.93890625037065,32.05348590893031
111.56978184121047,-203.7426505903679,6.2551816044130675
156.81892265160005,-50.9609383554896,75.51581948203477
177.29407847036717,-234.02400755987645,42.20275120851893
147.91688994099556,-181.31244173117892,36.598014755521376
95.52026143933062,-148.307598896404,20.707732199657517
122.49330679027024,-117.53338999205643,74.80938984866414
149.60037679638037,-155.11989705731335,37.43862729066856
170.5185303821636,-192.0717340886022,33.09523983369792
117.79495811331958,-118.84814722316676,13.403591289171942
119.02316799366692,-71.44428618113118,54.97587179274133
118.0181648719967,-203.38949749003095,85.02761522754852
137.7189526133112,-151.77219816887725,38.99227560084095
89.32939688600504,-162.4381105437713,77.64589601403989
146.36960127944246,-85.9072260578228,58.89634905602986
140.6154682475058,-149.69197177315397,17.783976737602643
150.1873435386815,-147.77723240483212,77.71969939236733
164.00548599763442,-196.91456047897873,79.80842903606805
110.69419594047908,-94.2989149480569,33.255331158836384
150.84646670496875,-123.92127541101743,59.35025711909179
134.63525367420402,-236.21948304275833,44.18909550323066
146.36664200520647,-246.631646587214,60.20790851291386
127.01767513037353,-117.52153383265563,38.75467177222982
101.30966367024887,-53.42233265625384,29.611106366075234
129.20444417579807,-200.8030625311315,62.35124823125653
131.51844583753163,-207.5709536036266,59.30953145660976
143.84561637054685,-246.88749238795583,59.610696923726216
144.08275354680123,-3.7077973061201135,66.09041122223398
142.09266203508818,-101.09418769388449,39.81481908578732
132.08781958540422,-146.0785270951327,28.420753706013258
161.7904611678276,-151.55048150464557,39.26609365942292
135.76101156179823,-207.7959823484035,68.03435704595776
171.4794095384866,-113.40155216069908,29.81905588450264
152.9488811999909,-201.62371008165042,52.10490649020785
180.03068552341458,-144.11099980788097,9.199365403436133
129.86623294007615,-136.85474221847215,42.96931272894534
167.50402018326116,-21.11498379025852,67.74276211484792
124.19929872693257,-91.94785781509705,42.07857636144766
168.41725998267185,-135.39486034554187,42.32455439217987
132.37565493571586,-261.20635677929727,25.013786995100332
134.6969192431108,-182.69342378998337,6.7236436006008375
133.18169032079572,-179.88668908560942,83.85571674689913
118.53808716991419,-224.5307458125016,29.761227552148725
147.01861413396668,-218.78260221882238,32.350099276216994
93.69886390281255,-198.58828769610437,4.317721491330303
131.56425679359904,-125.9430056047794,61.94779354726233
152.86109042913665,-123.64875059382712,74.04692427834588
121.0352506082942,-131.1844329808802,49.70848567067503
152.28363793734619,-255.2115243989042,42.4352364923132
105.25698877335284,-42.846912755968916,76.1428581886678
136.19751694688884,-238.0086040847369,62.02888023281899
121.2382199034219,-119.66780172691513,42.12522005052431
153.79621226695866,-124.54550231867668,74.75169350941853
161.23092640696734,-100.69024523283319,51.14591064492239
153.4783359425526,-23.54245512811687,43.94327593693493
156.8757979409868,-101.44654967175595,46.704634348739106
149.35323974283781,-259.0133869555769,44.07122175501137
163.5329069685427,-109.35698031973786,37.45568308876071
124.53688495737173,-179.86054024230415,25.97044355609844
148.73984523657896,-165.15483459056475,17.379826687648134
136.38402328747978,-248.82074572855055,27.635053729988208
119.1450080474756,-197.57787623099884,65.89295405090193
150.42677251935748,-130.28603468804616,44.57940927427235
140.46818104319652,-119.24901328188298,23.240983067141233
145.98994572548395,-105.3385144717535,48.8996847073279
128.48865725546202,-219.1606416319164,60.659587590102326
130.97939615020354,-127.87638263896389,71.61952461197735
112.44003602653152,-97.87076752463693,44.66107469000733
138.37647251589118,-250.75937724871648,1.3910543965110023
176.25700772584344,-115.29902723745793,57.23383232589742
142.5833532049996,-229.4845512412713,26.547107251169727
144.4663876156044,-83.03259453606944,44.222535934367485
132.98105832909198,-169.8277805792969,53.965045234286514
101.06158666404396,-100.81681356968907,68.10667966230018
137.20880441926266,10.810606941732317,44.93015322627344
123.77027599353113,-227.2857892796167,43.15962278358729
141.3888246699307,-123.33081380182854,59.40080098966702
106.10882655732277,-8.372979464551804,80.44786442446205
178.2428755463229,-154.8573845682734,27.028357734369656
135.98785216843558,-100.70338573163977,53.42783697541767
111.91518779982599,-299.27933069666085,52.28911526898498
148.314974215039,-160.3458373244487,52.25542696722605
162.68914791661913,-79.43975747813394,33.73395732479524
172.5578649409797,-194.6080162665504,33.18722461589924
140.36989839950812,-131.7520652607763,89.24343588903793
123.98999612592851,-110.10468624611337,69.84374090573002
180.487739528907,-177.39558505819926,31.16553150993021
140.1279404793739,-121.16903673966834,62.974906477332596
109.12463920364615,-202.0324884830631,55.3030502631638
138.66778353851063,-253.49310502522502,51.91096587488843
156.2225065798187,-171.6033727019234,59.21915173836622
131.2581359096849,-106.1366677558934,75.09609741565946
115.38788827614957,-169.03834635389444,26.067077793563644
131.84851733052574,-127.57834166418901,44.14963329170314
160.93739362269955,-251.8064704131299,28.559872299700192
122.3709515142695,-134.53876009650543,45.453178904936536
121.52297830955798,-178.8482321698937,41.59170157079109
142.10940465535364,-84.95416538825833,38.86000369446491
152.55888724673548,-162.76679746056826,60.01344203460418
133.02629581620178,-98.96776518509392,58.24827033384895
141.99889984914805,-59.38650792847463,31.32434274459412
125.3489344398295,-158.11383790112416,44.4199221151013
138.62293753298405,-191.29001844072835,66.29615169195377
128.5486054212373,-153.69640061828878,51.27601427170157
132.72845833862303,-15.707204513803248,57.05586852905586
128.8873215798779,-178.65115239911574,45.190155640942464
128.0628452711762,-147.78616324929422,61.577416270119244
152.39358624179138,-126.74957866945431,61.817627701246536
140.7495464143594,-96.97079448528993,71.87727978916796
117.6853198643338,-193.6870760135073,30.114697550535325
149.62583742895785,-63.290579486800596,54.417278002870255
160.0110604046872,-8.147157390620606,51.921223695114335
136.47484371584994,-89.87741941047915,63.74809712796552
173.82352008405874,-58.733240418160875,83.53847399457979
140.06874020077723,-148.1619553786252,46.53031005030256
117.99900564928575,-190.22102510438643,25.469605606860167
159.44667920846373,-51.9179501702322,64.41972491627511
126.57824205364531,-116.50710826272555,42.97911756629338
146.9196000207367,-172.69835498902265,74.84300705955113
164.14174096437583,-80.81606471928764,10.135883789004382
170.6328663394623,-73.86181966410446,70.77024483245063
113.57636727333549,-131.3585032222754,36.65852588600729
144.56432221512836,-208.32822862192268,47.35633840659096
166.78414209718653,-182.75493943061448,33.52053294874263
138.6680713159661,-81.76319064233941,58.37158020139023
178.35679481930373,-127.50631372537572,61.588035269285044
131.75913859377127,-198.1294202403547,57.895640296233935
149.96120742365517,-191.41790696291434,42.00775127531183
106.78821959567088,-188.29375514573664,13.512859979745755
116.34711089669548,-216.80220016861594,43.02716463721295
147.58519420281266,-65.00437134666322,46.802461279807574
144.00259365816729,-210.86215298670876,33.063967785726035
160.6953771641597,-176.80158493705167,52.354287801219165
144.011096902316,-250.94320540099136,58.86348311552406
136.47409357704794,-131.28227644793944,41.69177449815472
123.13089884960254,-178.27531387600337,42.67950064907315
139.36392981242463,-223.65556054903942,80.06864272337354
142.3755858803834,-190.59210950671633,55.799475552989875
149.3393385338624,-172.7848569763316,19.519132814895404
127.05657514059158,-167.60713202919948,31.320084317979536
146.64466531176004,-26.90978807256934,49.09150427468573
152.24067836648325,6.819953888906838,43.38014342336423
138.97655704938077,-171.846896838173,47.36857976562707
105.26740070291385,-63.22141580210723,58.40844295408133
138.00836961402055,-146.27000596281158,8.55159324431608
129.62042792068098,-200.57169079818664,34.68460606783374
103.81757714519374,-162.0433440628834,67.82660091332825
172.64173414648144,-85.69360713937496,26.568405293578646
161.0458904400869,-131.86096000722154,67.54774464756007
138.9822157342235,-79.45730536354597,43.81463602499484
137.85948765797616,-151.5972958504636,58.07291163696843
153.51130115421898,-178.03070785802632,26.816000769106516
146.90159640902334,-187.16771322747985,39.68144986565336
151.73576583185678,-188.08541141431164,33.24321874867467
145.29085953688778,-263.7563020709291,45.35696363743071
149.08393598754623,-153.02103006239574,70.03733990130594
130.7899851224697,-63.18145994757222,41.94728197503928
128.56614530934067,-177.64477468875413,19.878808581055054
142.49686913062774,-162.6091795421141,19.338249725711165
140.5760419729766,-225.32177274977644,-3.1129528583969943
162.6719212014146,-181.89977837728534,13.418560401774215
150.53453414820456,-15.620937022630585,17.00245993054635
129.59183901899058,-121.1633468264143,61.57927069827151
133.5773609855083,-71.64073704708716,15.311794304371674
134.5342120007454,-46.301456316159175,47.93682783012813
145.7319759718126,-134.32883483316132,35.595181584816366
161.05018426857856,-215.36313359157396,30.248366162088377
102.12673727157443,-76.1701593820865,60.38671513627098
137.81151412151038,-63.901103555029465,67.75487793518461
107.17159323327061,-241.74778349894655,39.1844505174724
146.6081288382364,-59.46307010833418,37.50090703884091
126.301623322029,-296.9857754315991,57.44290480037024
147.95357831180272,-88.04612477710259,14.50415873120049
150.75514899540858,-151.71623200485624,52.33193621413379
122.73702198075779,-175.95382199577722,26.512215651696522
143.18972206575964,33.14912558935461,57.84187078471922
137.08605974914371,-217.25435980333003,51.76439852712962
167.3242750128127,-234.81602272680493,54.159943850740106
140.08961272508066,-203.98848178211887,63.883521359805044
168.60567416602547,-65.90587527273173,39.70286824374556
137.53440561486232,-150.1350472894315,52.82130434763814
135.68764262499994,-194.6921001260838,51.97017690998038
126.99921396525366,-33.00692566171519,74.07473279764889
126.96598202642916,-111.02974391975506,25.816219746955117
141.43891060302468,-164.19528054300756,70.27410287853502
134.7044197528707,-195.63876575265002,45.91713268742283
147.52842246313554,-189.65194455789754,24.54202942515731
152.91881720631753,-234.38143569132012,55.812846040616975
135.81715043335518,-120.71804974156936,67.2326529151215
156.66769861436197,-93.16890585912722,59.05144621197077
149.87633518695645,-123.67844321011026,42.22533004099068
162.7362949791667,-153.80104778712308,75.15854306598551
151.19656396353594,-105.0028088941502,76.4054117368952
118.52266345208866,-47.94737861395305,63.59579688239748
158.8423211962344,-175.96123580873152,63.77824873370467
105.81913421441413,-92.10349423059654,39.80860730419443
146.2273256526582,-151.1575584011676,62.02015414477107
112.2830688650415,-107.5323237142904,75.4823582767801
122.20163274914049,-91.58939972055478,16.991672259104135
121.28369653448269,-204.84659217971782,41.87023314229406
155.10760605017515,-194.4830438760434,73.00448454706017
113.62313591044112,-267.0033685785815,45.78781240705253
160.63450383987308,-107.11935236724082,65.41857039633875
150.64841279157955,-12.952083022572737,48.0872118286298
105.02326077031202,-65.60721243335497,50.116368144576406
113.59359534137228,-110.8580580123542,33.88803072014095
132.15842123940413,-75.8014497149211,79.3185561072859
141.53690504045852,-170.0578256560094,54.61322379292564
155.6037159310311,-303.2866755137696,54.8914147447471
126.9385287047086,-210.7546621283658,55.010271486926705
124.2004002334518,-180.1038912332378,59.12061411363244
120.95699817859386,-113.65814730371312,93.03244990846876
150.53472337504738,-14.398670753399642,39.40332475695314
123.35295412912262,-154.40692823257456,49.02973726169317
171.0786213258199,-71.31449979873156,42.386001160714414
156.22652192853366,-129.00767111707285,46.693832986306255
139.0443488047655,-198.63475997522983,47.916390192866025
159.99253736907667,25.458539441225042,71.81550539399387
109.40969321763319,-236.09870733221462,54.062676510674294
147.67469700608623,-91.71512826856272,60.063024288253544
173.2369584779056,-101.81997134225013,65.37659190538105
122.77305205741936,-123.28502684094052,77.16325942604493
170.59387378598242,-195.49916890570495,70.88515542523092
129.91950889170883,-89.68281841477423,54.97627679269073
178.16903672293776,-62.859274483765034,76.84125191219076
150.6961396270585,-108.74573907743027,79.0366159260141
112.40299029510356,-122.81781616720008,67.08163069073171
176.34936048617433,-101.52944247174624,33.127112390611295
172.83783670311342,-176.68541559475713,23.57592714825183
117.3707343807586,-200.58249334235384,37.766896584667194
134.53188135248976,-194.6169972094561,48.61702603432336
154.5813813578843,-144.8982310639257,68.21627031525067
140.8668409926319,-251.8453727741554,35.308035987648154
158.65883336697897,-316.7218169185004,61.00523841100891
135.92962859051764,-84.80347136070097,50.42911326839464
146.404036222991,-88.10861592353413,88.65268436533914
119.7946954910064,-113.0897195609619,71.38154612082636
150.11498773026258,-213.96838711113574,69.24940829799749
115.04802557174611,-192.2243885617569,81.43964423953634
131.68456609865817,-226.14862334577654,57.8123556094383
108.3896804257261,-252.77950153861335,63.19540562586515
130.84276843869955,-2.840897874894864,71.38524352210021
158.74105562321546,-188.17431914737304,64.90843570006295
136.59297520831524,-147.0847643695693,33.23107911272117
147.40516031834645,-106.06966437524599,44.687356939025605
146.24841306269786,-143.50589302302572,22.98659115994472
165.00640376664998,-61.0333378466124,50.229547779343825
161.27847237134227,-173.70208272555786,41.2353665586886
128.56308095199583,-242.1271492813621,68.02011489726534
108.45563363781726,-182.23856236580383,70.6204203524758
125.7854459161106,-32.07624756470871,23.100451744380294
144.62227279478037,-342.0669622147283,84.35179516985409
170.48439056310846,-92.11744896709004,46.69871461227365
171.82894021113174,-136.20986636901986,36.162720348497224
116.14073110107246,-22.284528106758543,52.053186803944165
147.59659820610594,-196.39094047764345,37.74217522312124
199.8880246319898,-139.47127564192246,56.00591784463204
151.21294685492754,-77.94444898161038,18.026485905380394
183.36102679758127,-266.0446639949714,30.92585461540565
127.10937459500927,-161.70360613033876,56.48915567314969
169.30570648124058,-120.68346358080606,16.549371214359965
191.1879178098764,-118.95506269973697,43.68263655246416
126.6742158880846,-171.1469493063776,19.34128649569064
140.8010293521899,-162.88608986279723,55.951518378842934
106.43165157529549,-230.821742243107,11.50309702365832
126.49613595551483,-165.80562893679019,29.708459711364654
124.5473834268496,-177.91554571175743,49.41731609529266
142.811762368347,-205.96922755869832,27.409884027966676
156.29245014830855,-141.55988112687527,47.227516817629926
147.82047000104455,-116.0547764325337,46.60917046627877
169.22594174675623,-282.7452343113222,44.9834716159514
145.57488428673747,-110.05800974477607,62.233511046533856
157.96201454321508,-153.48722505804687,60.03343248503988
104.45414856199864,-144.98709204021506,74.61591293576603
113.70921012191248,-221.84775960465376,49.210360042817705
142.37171409614595,-140.2532799828603,29.220061556891782
110.80543161533912,-222.2209055137027,40.496484189109715
137.6429036753368,-223.60760114084553,-8.417293784589688
119.13687855157782,-170.09434216999801,70.94508960861947
119.2847252508141,-167.69695260467745,59.77907568362144
125.45658715938538,-104.35819897038209,32.925864612102544
133.47268972033595,-222.67101601269576,42.838883900721164
113.9949201029599,-203.95271810061794,41.36136768153933
154.30510643101942,-55.16959669828151,41.651035242710684
123.979172372176,-267.7701881970819,66.06707521632121
137.64726523155562,-119.44948864381433,53.972065278423536
115.80167103770174,-237.05554914596976,45.249852647271034
131.49172112521507,-173.6780565223299,47.07604496076774
122.36831119632126,-214.41628763696804,65.50446741376992
139.67378925291803,-122.53291712041188,52.096864452555685
161.26669420446623,-157.68923091054427,49.96843148430291
144.2092118937253,-206.3770412387411,73.85517209086122
144.80307042515955,-101.66693545485967,64.5424395604417
125.4113473874924,-11.236110844276453,78.01628906896647
154.11096964549404,-17.037450976986634,48.50742778066992
183.8254769429629,-188.09469873886457,28.093953725406642
132.10768000825212,-95.25523563080303,46.2431915597696
150.23790879965904,-146.3049172436347,49.29075912403821
137.26741834480003,-79.69647715627926,36.8042910005755
127.95583181300447,-16.606741897955885,49.270514835197766
171.3113368392698,-178.83763122855157,38.1093127220573
174.55144023814975,-187.79570473094435,45.620394504297266
151.22756433738954,-61.857882585824726,50.16850927272564
177.31933158369822,-276.3428060244437,38.26232286932233
118.16894309747936,-73.65596816166318,29.713822903830753
119.16263105783317,-133.4349966191492,79.34855765693712
158.07444869458325,-61.18742737045734,52.31291784278134
128.28002065432017,-176.68131157422997,53.73971455116852
174.98412708666913,-133.07341325765273,86.2514130928509
151.37640103697544,-272.70157249626186,50.684419122103805
148.8129211304318,-284.97618032850517,52.329249259236285
142.32056131651277,-100.10712628498071,76.03204055646862
151.8426392151027,-219.0723900454124,74.49729714395295
129.02417355007128,-179.39674526678408,51.580870977064215
153.12113589033672,-223.72669902981988,44.15106866641632
135.18463647531266,-271.5099603496226,78.3572606011667
117.60019812970339,-107.15112069966011,64.69471534809014
172.20104995157516,-154.6158432653532,82.77232080430656
142.0349702121275,-122.90108756494007,53.77275723143727
142.59486599014545,-188.52446694428886,42.13026291922775
144.0317966709953,-148.29418737166708,57.33110970591864
114.0845320728809,-129.067848470566,55.047851278902215
157.44149429481033,-73.42221613116978,46.58470413290137
122.03918169144072,-172.5901461986395,43.184712318923864
147.00521099838446,-178.71746805475186,32.241165151213266
133.25403251113917,-115.66910489697355,59.71969224077394
118.911386620365,-171.91964073839898,23.067398226713422
152.25410974106182,-140.02984622312215,85.5597718930426
127.85606625622172,-91.29026562280913,37.5528318223663
142.52483859192344,-124.23610768842978,56.07012651232942
138.71932059533424,-55.68389426933112,60.06887894920805
154.53368507303622,-276.7175965996523,47.38133768848705
124.46707684320417,-399.2771105432995,21.363579809905794
143.0167770062716,-150.66204598392332,44.483116638030694
189.38202584001192,-141.24811586532104,65.69066385196047
162.8234299950632,-62.02817073626741,16.21148333666258
102.20998802263907,-214.73518903443926,27.420238242283972
129.34340375631376,57.199653592833215,60.64007051073996
158.66928815661294,-159.9107001530073,51.79543666255254
120.29328682216872,-138.6141591505351,81.97991055232734
162.1281611707019,-189.65476775350274,76.34778628208556
114.09899882759265,-236.37769131583934,26.260512211707592
140.36815765890879,-228.43258889239402,51.08134698719268
131.52292167971171,-159.8302775166833,54.09406247036014
172.68194733885372,-189.9975076342589,56.94011198639673
120.00667826701067,-140.6216201071674,57.71192590913849
190.81303407094134,-219.96781383109436,55.489952962644495
126.68331088607425,-101.40297065768593,38.284803385093454
142.79234905273648,-46.288379622469634,34.68108748813309
152.47661564644747,-214.6592318438523,-0.3645807376584429
115.32660624216379,-93.55727790381994,95.46222953953824
159.65182156677855,-278.3781940022494,53.338502352648
122.651514611213,-260.9435678928817,36.240065072115726
113.08735764052365,-169.56098136307668,62.02595053523323
163.3662976582998,-170.65670471083854,76.6834222937538
111.25579057845283,-240.32155983718803,73.37799659367377
136.23494728171588,-123.4194487172189,68.16528254248459
149.6172910091849,-250.33746628456078,66.64396290298339
159.4857645160908,-176.81814360184666,39.97866002950758
108.70995735926343,-233.14064778236087,49.205285682238916
166.80047988021911,-220.62912878555605,79.32828168786652
153.02294305778292,-228.67474124941748,56.03561030308774
124.49951538007403,-57.457009382111735,17.577779949710575
116.20489283853527,-125.10325518084275,36.97687956041225
140.83853211546077,-127.30614658103869,66.95295668436728
153.58435583024092,-118.07330025833215,84.16898468847899
130.12350264395903,-204.395889896297,59.42410100311128
166.46048892725088,-251.0277974589062,57.73633470520036
142.29696891033382,-80.52708262574777,41.94253169942099
149.9621673521493,-104.21791588083028,36.88222069680089
150.71417877068376,-87.89721836686502,64.4312468452748
130.7036105092834,-203.0026717072939,59.08203320747286
179.15787247506535,-202.5560725108256,50.212714721783875
87.4919818255093,-104.5646875306106,26.132165915414262
139.33827363281904,-125.6980707409811,74.07142387454516
108.31904327094108,-190.46737438850835,62.85445773083438
143.45544443234428,-58.13184807950971,40.235049629335975
134.51969100495742,-226.50685173834455,53.812748736134054
159.43227855450132,-133.67200216656073,78.68828656292605
177.38792139321924,-113.24432223706981,61.368727578588285
145.70610631804206,-110.06432241971831,90.95694229656195
153.33699052525222,-173.4079804564802,58.96618833389661
138.3602065624945,-153.0642444107837,44.263787322645065
134.17238635704422,-211.02010295722508,40.65124982396079
130.6376513933899,-194.82499561791678,52.28931893683383
132.26789564889413,-153.91214368065621,73.2475267697838
168.01875682824962,-147.82284078739272,69.08310839749377
117.36908899817216,-103.49687189457693,32.310192107495986
153.08590280629082,-62.75717546154702,75.46153481253992
118.57685380633235,-201.15423498761533,64.86584883251894
163.45584598284097,-145.06262774141146,60.03872962238003
162.64024642364743,-111.25455435151889,59.53579188171737
149.851024174194,-34.85783571720616,55.91989009175539
123.46773168458111,-327.2474684304668,67.25806822034369
120.55539136512539,-79.60728834667567,65.33745707210406
129.30515220159756,-155.57791940242362,47.97123523338902
148.85231612403678,-162.13432043543077,63.08358098980356
121.52627536822295,-217.84160968378671,55.8423082346464
109.61081122970256,-111.82151163972821,28.98923033410588
189.56189152779427,-175.1704759534515,43.544219063641265
131.55246226596518,-130.01406088261217,80.26762310553676
159.84602148514895,-35.17880780074141,59.408206515897895
139.75876671626392,-152.6844635204126,55.289843608650344
158.62740994335064,-212.82979874507078,85.46612709128766
132.44882698166762,-175.91436098817286,63.26602952334338
142.72632777531365,-226.70500719645477,46.564315177111396
140.77824865854677,-126.7541711272294,28.00465238534281
108.05764539225704,-107.98201952634028,93.99532049062944
136.43549418458682,-78.7823345162667,66.77155897202206
153.10890001339249,-150.38872591798406,70.57087773412442
164.38448843667496,-268.32516708812756,52.91660009873738
134.49914198247941,-122.65426596188777,45.868501995074226
146.33849704982464,-114.87135431636744,57.47168496003652
117.73863168963368,-120.29322148269819,55.12351669127327
123.9403882605099,-220.74833396166542,44.29509163492098
136.2403986523695,-279.49993072927566,42.92190108128381
154.8992927117865,-121.04536897714915,55.175515600705964
159.05457210526612,-49.682768853789554,56.833688094470794
179.72823814476698,-201.42827493486124,66.12692220005187
159.6120213339701,-186.0850806048573,20.839512194559568
125.73497987379264,-36.506909126595275,61.180192549011906
150.59341783867154,-217.15010128572064,65.31117331257357
128.32060738215213,-172.70849173962347,33.50743514302431
147.51906010783043,-149.10946072070132,52.88253326883422
113.83969622142428,-129.4320055139332,65.01202990685277
158.25356296159353,-288.8191398507927,80.97679742312357
121.04373533659518,-162.89937860976235,-4.242112297402116
131.95310219858663,-106.70630884688609,48.02195773435653
118.31839675716638,-287.64297830038,61.17066323691441
153.05230476817056,-136.06094518192066,56.38565606389663
120.62499693975342,-68.82287002356705,23.790857533555176
123.46024308356048,-171.302678183697,63.187110770566065
115.24600492560137,-18.631783992289343,11.614160177929826
169.12129655699508,-107.57800727764152,85.34834965065858
125.97818554267796,-48.491189724844745,45.63049731918233
136.37006745077022,-198.09854700876144,72.07697199673588
144.19601246949372,-228.71320410912932,45.2527247974861
106.22590623409036,-98.59760023531591,29.634467269151642
115.51559497418998,-151.1017046494587,49.44552873621057
147.25632857431387,-90.24674795470392,53.28989718190211
154.91034736795837,-216.10324634638204,57.45786425470047
172.71309141205046,-139.66520860744242,46.225635125773685
116.35872341902245,-230.70184434636582,35.45494103098721
135.05686722907572,-121.42799667495055,48.163460877272406
129.43225112382368,-191.00146083788513,78.80923677296906
156.61398702082403,-30.02210330757825,71.74283921547263
152.379599907409,-194.60351508990456,33.411726047159156
136.0271399311624,-240.15975438681434,62.66409940673611
126.50105388060528,-91.62490437139948,78.64614638265061
132.329819220446,-78.85762099225083,13.742798187368287
137.65187813781301,-119.76168830559095,53.67719300583519
127.81218429800543,-154.93065086352817,70.74287192058647
107.45445175338935,-58.18589640318167,68.27326059817011
136.4213007905203,-67.07584355853828,32.71371578965762
106.28513931792894,-73.94258134281914,29.61940897964908
166.20696006673526,-141.98926422436801,90.99816203278576
103.66056010947327,-47.8210770776023,63.56302975628777
155.74599058351376,-104.20116354477372,64.96815450193415
152.64267572420013,-161.1991907885697,66.14555520974744
113.68092669497358,-62.2890423849919,57.466560756779785
152.4740457193799,-162.96124870220578,62.88262194178494
135.8576760523107,-58.5364117453112,43.25272020351801
128.68745824502597,-128.6858044204793,52.37871125427255
